# 3D point list with one line of data per point:
#   POINT3D_ID, X, Y, Z, R, G, B, ERROR, TRACK[] as (IMAGE_ID, POINT2D_IDX)
# Number of points: 398, mean track length: 3.8653769884986562
9872 2.1240805371486045 2.0058420059366568 6.5990422323151687 52 43 28 1.0364770185436187 5 3796 21 7975 28 2897
9569 0.44844924102667 2.0665929666164953 6.9616820384910829 100 91 82 0.53648710330605287 4 9813 21 4050 6 10158
9876 2.9890445181589578 1.9440199226933641 6.5975487902285206 107 95 67 0.26939380435602611 3 5673 20 4222
9573 0.33898736592015982 2.1868824775134508 6.9721710929138752 28 22 8 2.4376118216076974 5 1377 21 4123 28 2087
9880 1.610129929248459 1.2117613946510351 7.218835660865845 47 39 27 1.6913929432104089 5 8061 21 8155 28 7430
9578 3.2832622118276524 1.8155895661263453 6.6496706969134491 96 79 71 1.5584677229854957 5 3086 21 4197 6 2180 7 3525
9581 1.574638629788222 2.10695535861338 6.6578323680566998 133 125 112 0.19693560207430266 5 8927 21 4222
9583 0.63030797039438968 -1.5681708643111543 7.8641814602193536 94 79 58 1.336858712528834 22 3777 21 4316
14563 -1.7819519030189157 -17.541775533695077 13.61299229822329 56 59 64 2.0082518233712809 34 1007 27 2224 33 3581 26 1729
9584 3.4950973972846371 1.7379736201544658 6.774686231915096 68 56 44 1.3337490338034064 5 7079 22 8472 21 4343
9585 3.9845188946799865 0.11692062472230312 8.5405956446867624 44 33 15 1.183208168518197 4 9289 21 4375 6 8455 22 9074 7 3915
10477 0.97694685476199628 -0.31405587832976251 8.7187277753488743 8 9 3 1.5769060188160553 27 5797 32 4192 18 2850
9586 1.6912868000267924 0.45768044260828467 7.9971304015622815 53 40 24 1.4323622579120718 1 4541 21 4408 2 5881 24 3639
9956 0.025923106172071528 -13.088178886710086 16.207908084433953 64 72 74 0.17080435356168094 34 1951 21 1344
9589 3.0468544150046548 0.28511634750845133 8.1901615844441178 0 0 0 0.75845592974848985 3 3977 5 6806
9592 1.4856291426045605 0.55118120182443875 7.8454472565216697 76 67 50 0.004444308113875842 22 9072 21 4483
9960 1.1170448556405137 -2.3686326154371704 5.9707010146739652 11 3 0 2.5010286335000447 22 2191 21 1858 26 4339
9593 1.8476837209360464 0.49855059658104939 7.967707280982415 112 103 88 0.94152955722813869 4 10762 21 4484 20 8091 32 6405 24 5218
14581 1.4236943278377665 -0.034356148231336356 8.4702690665105518 47 38 29 0.55715195811539797 34 2319 27 2352
9594 2.1505213320178123 0.46578775724065619 7.9564686839421412 38 29 11 0.88502610645876723 5 4981 21 4490
9964 0.86948873218597866 -11.197048836105965 13.719021522274614 39 43 44 2.4175330540602848 22 1105 26 1841
9599 2.0858608522942093 0.49521649428510267 7.9948153893553897 124 112 100 0.95990017108502435 4 10755 21 4517 20 8108 32 6396 24 5289
9745 4.1199802942266457 -1.4243350649561723 10.192624223654997 78 70 51 0.30286464111210054 4 8467 25 11407
9600 0.57955658477798544 0.70604889217069888 7.6118723238641151 98 89 74 1.2626482053459562 22 3917 21 4526 20 8320
14352 -0.10736729690477122 -1.9191405958834229 7.9003191413728091 154 166 182 0.2588107502041343 28 275 31 218
9603 3.0718601312146694 0.39235841367012941 8.1895208052538297 89 80 65 1.1587292123179302 5 6906 21 4552 25 6107 22 5559 24 5406 8 7588
9749 3.9599804213306005 -1.2276024286311904 9.9600185827438761 75 66 51 1.8052392243394098 4 8550 21 6249 27 7307
9604 3.878406618000207 0.29264596932030446 8.3380373689828442 50 42 23 1.5672560002209659 21 4554 24 1545
9605 4.2169336387193832 0.27186451854832078 8.3431846769664606 43 33 16 0.58541540282603577 4 10452 21 4580
10775 0.17846436256186585 0.89768436999621382 7.3809810238700013 48 41 21 0.32600541080469203 21 3365 20 5401
9606 1.3902375186351397 0.65660948188165236 7.7335669726451117 57 48 35 1.6729191760843971 4 3998 21 4589 32 2586 24 3717
9753 1.6899787971045361 -0.80503418688252881 9.3752133866842371 45 42 33 1.9954807777875647 22 2383 21 6278 25 11647 33 2697 23 8693
9608 -0.51853451524988625 0.9409410482946331 7.4219925566582905 129 119 118 1.4382345738217741 34 6651 21 4619 20 5402 33 7205 18 5660
9611 1.7751041524607176 0.73009035074604567 7.71337522197335 122 112 100 1.0782988310376422 22 6504 21 4723 20 5626 6 6059 25 2384 32 6708 23 2616
9757 3.2202269568826614 1.1057700462409374 7.3830187088316013 84 74 64 0.62423396595288205 5 7733 21 6341 20 6089
9612 0.31039990623979846 0.9325277023733971 7.4196459539522781 43 34 19 0.55631800362778117 2 3420 1 3822 28 5880
9613 2.6885722321029912 0.62539899185318482 7.8888482992199433 44 34 22 1.3541096165815258 4 4310 21 4745 20 8364 25 7004
14879 1.4978040387037765 1.631458952357558 6.8936107120225376 46 42 33 1.0680083875345501 22 4736 27 6627 26 3103
9614 3.8144130554448159 0.48202196887887738 8.0691974953993935 67 58 41 1.4532100057571471 1 4679 21 4749 2 3444
9825 1.3598798903889873 1.5330323649624122 6.9653895985938377 91 82 66 0.24576365001188546 22 8017 21 7122
9619 0.6041459280566418 0.96810172416846008 7.390373960404399 121 112 97 1.5070562548950068 22 3570 21 4811 28 7155
9829 1.5640732270782798 1.5506026086365903 6.9406093563686113 59 53 37 1.7484581839038054 22 4687 21 7204 6 9108 18 6419 32 6074
9620 4.088233783872278 0.51941248816334074 8.0914570631413323 129 116 100 1.4702620565083837 22 5963 21 4820 24 7347
10855 4.7090819181785442 -3.1509177684969636 11.984450207829591 75 68 52 1.197241266326099 21 4317 20 6347 32 5037
9622 1.5831783995244153 0.87300191111484127 7.5460489442972936 80 73 57 1.1686153458608024 22 5867 21 4855 20 8673 28 3661 32 6909 24 7108
9833 2.3675619046367156 1.5340382620022375 6.8776241527461623 39 30 21 0.87583949525480631 4 4919 21 7360
9624 0.49804624516774604 1.0300435471259872 7.393103449516814 55 45 33 1.3272773932640327 3 3981 21 4870 20 4074
9627 1.9254966533973721 0.88750370298563963 7.6276122403035105 43 31 17 1.1318406274713162 5 7646 21 4900 6 4378
9837 2.0276752592428262 1.6472212691672665 6.8332262054973043 63 54 47 1.2149312374237626 3 9467 21 7457 6 8605 18 9142 33 7972 10 6164
9628 2.9543502263995078 0.77557742325515733 7.7768062674283334 47 40 24 1.5772494288646759 5 7352 22 6092 21 4917 6 4208 8 8215
10338 2.0631372716879235 1.5657011594668657 6.8893445357683181 127 115 108 1.3328234109368551 21 7339 20 2110 6 6938 26 1260 22 4757 32 8360
9629 3.2996999792298647 0.7315229481829334 7.840223664136694 42 35 19 1.3525748075287343 4 11070 21 4918 25 2643
9630 1.9628370044922514 0.90527135797964653 7.578603782236061 51 44 18 1.6494553193926158 5 3147 21 4926 6 1971
9777 2.7838925615732069 -0.42388686946487525 9.0596815597617386 34 26 7 2.1459921506088429 1 2886 34 6213 21 6561 25 12246 33 6011 26 2700 23 4295
9632 -0.54363632817730634 1.2678075154937711 7.3081076181174858 127 122 104 1.4362899850094886 34 6863 20 3248 5 7219 6 9397 28 2586 33 7573 32 7750 30 2859 21 4956 7 7099 29 2285 19 12545 10 7153 18 6165 9 7281 11 3391 12 5697 17 9318
9940 1.4921460017484791 -11.069775728593637 12.19486922826883 79 88 85 0.24996071327303884 21 720 20 989
9637 3.9470886656741611 0.72301557123279137 7.8310495057850487 110 101 84 0.43881415067703422 5 7152 21 5006 6 4076
9640 3.2581889327751998 0.85159091101906947 7.6942656872035551 42 36 22 2.0930768205095185 2 9297 21 5054 6 5811
10290 -0.11593324385379999 0.40264586195290669 7.7870049966372834 38 33 21 2.148787656360355 4 4081 20 1647 28 6225 18 1546 10 1246 9 1546 12 3640 16 3688
9729 2.509107550617411 -1.6166897569976182 10.255532696845945 32 20 6 1.8170491112090832 3 8368 26 5876
9648 3.1802353633864962 0.97674450366663346 7.5152635385880684 47 42 23 2.1095010134518177 3 4563 21 5209 25 3170
9733 4.3839390137244134 -1.7003155797044347 10.464498422172406 92 85 67 1.3926743539066122 3 8408 21 6110 33 5552 26 5884
9652 2.3654747545158012 1.0970860118918619 7.384873883183932 42 34 15 1.7707832055337687 4 7007 21 5229 18 4030
10759 -0.22529028721452701 0.76843767395363161 7.5241069328151635 129 122 103 1.4263089831465452 5 7873 20 5278 19 11109 10 6238 9 7849 17 8692
9654 1.6890319824951079 1.1807629269857849 7.2230036609411989 120 110 98 1.1681138861585316 22 4265 21 5233 25 1105
9737 2.4302497011713653 0.88101064546613439 7.6604313141417792 41 34 18 1.34800375650251 5 2877 21 6134 6 1946
9656 1.4988935993170418 1.243646279706579 7.1974941810583184 73 58 51 0.82421703042352978 22 6439 28 7503 32 7543
9659 3.5915459749561993 1.0142673271997797 7.4897335506478306 48 39 30 2.4046174228912234 5 5137 21 5328 6 4263 10 11065
9660 1.2711287374537124 1.3150413654098239 7.1805045532793663 89 77 65 1.3067467681774974 22 8833 21 5329 25 1123
9661 3.9285405845174908 0.97685034998755849 7.5720709123144445 44 37 19 0.51001350205276663 3 7118 21 5335
9663 1.5334253987940616 1.3337646189747951 7.1116485299873231 57 42 35 2.2885980184561228 4 7429 21 5408 20 3498 28 5528 32 3110
14416 1.443216888390249 1.6500571752489914 6.8769946306518506 106 104 91 0.56995696027899545 22 2846 27 739 26 710
9813 2.8377425708494965 0.056840226007714476 8.5437270562474836 46 37 20 1.184263807786007 5 4777 21 6909 20 5038 18 7804
12068 2.2273663201199896 1.3348252886558694 7.0736149549723999 0 0 0 1.0599712031982624 20 3556 21 5886
10839 4.3591016617212466 -4.1042185476843622 12.869422204382714 38 32 17 2.0433217262389451 2 5126 20 6170
9675 2.4933068790241162 -0.41979448398187524 9.0247168612706297 50 39 21 1.2161381022598845 4 8895 21 5646 28 10165
11049 -0.36432581138324432 0.76258216314596017 7.4669093128929953 139 130 113 2.5488525270333811 5 7898 28 6900 10 6326
10328 0.090739877271550515 1.5639729013552046 7.1218712938027107 27 19 8 0.93850804077906003 21 1498 20 2032
9821 3.6522461077176893 0.023095187355666191 8.6187198503694571 44 35 18 2.19043835494577 2 3318 5 4722 21 6982 25 4148
9683 0.40666045975576681 -10.293523837223505 12.534989538154386 40 50 51 1.0083619987208132 22 3358 21 5736 26 3184
9893 3.7909869614097804 0.15325480565998537 8.3891415084151664 31 20 2 1.7295831987517953 2 5904 4 3983 21 8307 25 8175
10408 1.4120417223795336 -12.23482094841378 15.338896064377913 41 45 46 0.6886209977269897 21 1340 20 2637
9691 -0.19577877416395748 -10.537285213118796 17.699746044809022 55 50 46 2.3028671983576903 22 2003 21 5781
11058 1.305613568285763 0.71139703266935361 7.6016057066909362 44 35 20 0.58561029174401802 21 4637 20 8393
9901 2.1334764278680702 -1.2510432032245511 9.8452773676438294 36 25 7 2.2255441822070101 2 7425 21 8436
12083 2.2785797727045951 1.4984805292227077 6.9194412497598279 35 30 26 0.18430388571228415 5 6097 6 6809
10402 4.9544705302453771 -9.5219857328107445 11.325049200115052 50 50 47 1.7478852055755105 4 5870 20 2621
9694 1.2873716428183066 -2.6741309606023127 6.0148586322936168 137 74 0 2.9039532355496602 22 6683 21 5796
9841 0.86748790873086834 1.498965129849712 7.0379712395300427 35 26 17 2.1269427425443928 2 3630 21 7482 1 3404 32 4458
9696 0.29065104623323734 -1.8762649946632919 5.9828666659150729 122 103 70 2.0502672331368186 4 977 22 6728 21 5834
9699 2.5323703625363962 -3.3442989389884912 11.005936786245574 33 26 16 1.3238278810237876 4 8196 27 2022
9700 3.2721740961648957 -3.3489925613093305 12.089434802727011 58 50 39 1.1538826094878718 1 4171 21 5873
9701 0.04043182587004035 -1.2989463039310729 6.6531476476665521 57 57 59 0.20956342202421657 4 8345 21 5884
10871 2.1274924930505303 -1.2009092825907637 9.8148375720038796 37 29 10 2.4909958369417007 5 4562 20 6705 6 3823 33 5618
9702 4.7416127865916966 -3.4168272215443838 12.148462348839043 33 30 15 1.7532059829842084 5 5485 21 5885 20 6286 25 4619 27 10013
9704 4.4526040971483996 -2.7145344583584632 11.427072301257329 23 20 1 1.5118382982998024 22 6929 21 5930
10360 1.3062223284083161 1.841801925353084 6.7780470034726106 48 38 28 1.0423236674355139 21 1895 22 4833 20 2283
9707 3.1978463517453823 -2.4164674082008588 11.16045185880969 76 65 45 1.6053208217911887 4 8288 21 5947 20 6464 28 4453 27 10153 26 5704 23 7982
9853 0.30101941714094799 2.0986826203632845 6.9969875091188252 78 75 68 1.1616657864373678 4 9833 21 7673 20 7395 6 10250 33 3254 18 8298 29 3655 30 2306
9708 3.0342636776917242 -2.3610176989584133 11.07282863421459 65 56 39 1.384757031907067 1 8149 21 5949 2 6916 26 5716
9709 0.73221622072081893 -1.3144391043698573 7.9394184124716114 91 121 119 2.6390245677740842 2 7110 4 2692 20 6535 21 5952 33 5417 26 8853
14975 2.3456365468357827 2.1354889762078173 6.5172310481692817 28 23 19 2.4944669882806805 34 728 6 850 28 837 27 471
9710 3.8786997362928926 -2.4699019687392716 11.287557692523738 41 33 14 1.6646700433200152 2 6943 21 5957 33 5428
9793 0.13851834624114645 0.21431428483800208 7.9859803941570844 17 18 20 1.0031690557684214 4 10206 22 7487 21 6718
9712 3.7672637386763679 -2.374300381026353 11.106280365906404 44 36 17 1.0680664386168439 1 2668 3 8150 21 5964 26 5722
9715 4.758015977840838 -2.4801658846882773 11.249683101984331 77 77 59 1.3028795554551842 3 8145 21 5973 26 8953
9797 1.2937277012848207 0.06204134751573951 8.349263870839291 137 129 107 0.77998438565190842 4 9250 21 6736 20 7400 24 4645
9716 3.116486261902323 -2.160045037856789 10.878698699669323 90 76 63 1.460812292956454 4 5806 21 5986 33 4009 26 4538 25 10936 23 8102 2 7051
14458 3.2962788232768934 0.46199772061787286 8.1195741392499325 40 34 20 1.846577922034184 1 403 25 629 28 2744 27 1128
9717 4.6954205577151562 -2.3713042577431751 11.184460506571963 24 23 3 2.1155234075566973 2 7084 21 5994 28 9932
10823 1.3896877466516215 -2.3675071416478319 6.0193198431442863 140 76 2 2.8018094888714735 20 6042 26 2662 21 5820
9801 1.0468509264466661 0.16787436198989628 8.1913621989611993 133 125 106 0.81559995758114445 2 8153 21 6792 20 7501
9720 0.78565765602791859 -1.1573711346169131 8.2055908673256575 43 53 47 2.0962351438884204 22 7002 21 6013 25 4772 26 2570 32 5192 20 6595 30 3706
10312 1.2020145459976155 1.20917732331036 7.2398535662307939 44 32 18 0.57398560454917724 22 2570 20 1878 25 2476
9723 4.2927027197785428 -2.0940971001506146 10.840323673300112 38 31 12 0.43845922485213124 2 7172 21 6030
9805 3.4567193898905924 -0.12755095657689502 8.7716142456121187 45 33 18 0.94343589583787646 1 3018 21 6829 24 1388
9724 2.9373995803904482 -1.8734110291436328 10.537422364941126 65 56 40 1.1588414706918451 1 8326 4 8341 21 6031
10306 0.93625650950884631 1.1057187999337883 7.3217458611942048 50 43 17 1.4472150939839916 2 1854 21 3507 34 8225 20 1843 1 1094
9725 1.8802515250549863 -1.4370504299829403 9.108163064465618 16 5 0 1.6791683953814498 1 4037 21 6035 2 2899
9727 3.2091895225868798 -1.8065641045349992 10.557100086134398 37 29 13 0.78607030177934656 5 2607 21 6053 6 1745 7 6348
9728 4.1003891831683479 -1.9452213704890462 10.715554149970762 73 64 47 1.5624741700989706 4 8335 21 6056 25 11101 27 7133 33 5512 32 5183
9730 4.1119894671606829 -1.8387147023389405 10.621740537999305 81 72 55 0.7203384321590619 4 8349 34 5944 21 6073
9735 2.1473571147620669 -1.3139249728482063 9.944714185615128 91 82 65 1.2188959904179617 22 7124 21 6120 26 3311 23 8410
9736 3.9337120097794385 -1.5454516525219686 10.267929954544893 73 66 48 1.3876763341054987 22 7147 21 6131 26 5907 23 7067
9738 2.8251709487546162 -1.3568075439903755 10.005942357596606 73 65 46 1.3852309664970262 34 5991 21 6135 27 5586
15235 -1.7912574412651221 -15.331556754332116 13.674309183603942 131 112 82 1.8063190719279598 34 843 33 826 26 2881 32 771
9744 3.4817828363217096 -1.3191144578803533 10.029437424635775 39 28 10 1.2876411449280192 5 5813 21 6181 20 6698 6 7210
9746 3.8162388393672253 -1.3606487801101734 10.092245747565459 92 83 68 0.90734050323945259 34 6011 21 6190 27 7257 23 7144
10630 0.49545271522249734 1.9789995210772098 6.9593182825879349 45 38 19 0.53973462683835449 20 4096 6 10036
9751 1.4831598009135638 -0.73067618615153906 9.0691518006539038 31 29 18 0.08349725883729156 34 6070 25 11655
11147 0.13763930774528482 1.2202331915127713 7.2392502524948235 130 122 111 1.4665320589105384 4 7236 20 9135 6 9112 5 5878 28 7596 32 3042 18 6027 19 6015 10 6676 11 5720
9752 1.4591622272670468 -0.76219407143726148 9.1375977527819341 3 0 0 1.1863464258512979 21 6269 26 6097 24 2408
15253 2.6955778551339202 1.5201723942704699 6.9309019058214805 91 81 71 1.0040249077980532 3 390 21 534 33 932
9754 4.4332807215217933 -1.2365420012797399 9.979726986979836 88 82 66 2.4217719219044289 4 8541 21 6280 27 8942
14734 0.02019483853313743 -12.823527955537514 10.340644766560064 119 117 122 1.1450206643022001 28 3337 34 3422 27 4469 26 2481
9759 2.5040476731208003 -0.78494281961603496 9.3906696011097157 75 68 52 1.9689597521115669 22 7244 21 6350 25 4952 26 6125 23 7315
9760 1.0245125934481563 -0.51553970656944592 8.8941740916390479 95 86 67 0.52138758026032994 22 7238 21 6363
11101 3.5152521816427957 0.82973745926368858 7.742829185007321 46 38 19 2.0543152962888538 5 7330 20 8750 6 4179
9762 -0.6940112342258743 -0.26729401146257875 8.526595665581457 27 27 29 1.2307180759309819 2 3000 33 2708
9767 0.48687674039895135 -0.30031721307211401 8.5908445514692815 8 10 9 1.3811521581124142 3 2625 20 4577
11457 2.3610149196173338 -2.7399818493231112 6.102569145952776 37 35 24 0.099658253276144484 6 647 32 622
10582 -0.15420323720939172 1.5468038441981093 7.1621354861799853 90 84 72 1.1158267504260286 5 3656 20 3643 6 5116 30 4288 29 3422 7 9920 19 3056 9 3794 11 6218 12 5769
9768 1.7217111820992632 -0.47267312750103085 9.0013500268781126 30 27 10 0.56890126214396408 1 2847 21 6456 2 3030
11466 0.48148878788251714 -1.5019850126891019 5.9359736836074219 63 56 40 1.159070837510864 5 611 6 699
11099 1.9257645990046726 0.89239125504294681 7.5571495142985743 119 113 91 1.1945094489849684 22 5983 20 8735 6 6191 25 2948 24 3916
9770 -0.2514272947985664 -0.11985365414375033 8.2495423725866157 18 22 25 1.4693398725373352 4 9121 21 6467 20 7103 2 7763 18 7759
9775 0.28628208581050596 -0.054413889336587661 8.2597694281497258 9 15 13 0.012931906579674499 21 6545 24 3454
9776 0.86520186871087712 -0.14898879650266039 8.522454275057834 84 83 81 1.6243239994705412 22 7353 21 6546 20 7143 25 12275 23 9091
15570 -2.068946267514248 -2.7407606792817871 10.914044414229172 62 66 69 1.2378493280045424 34 3782 33 3945
11181 0.62796984680329304 1.4193448791504304 7.0698793007505838 74 65 50 1.7513320849937897 21 5360 20 9492 32 7925
9778 1.6986266711356457 -0.23313335180384787 8.7319429569261704 28 21 2 1.9620895952836024 4 9030 5 6476 21 6576 6 8632 19 9296 10 11621 9 5196 8 7411
10460 4.6437933335076069 -3.0622518032308421 11.844936442645398 23 20 5 1.6537989514732019 5 2545 20 2909 25 5477
9779 1.089036883733697 -0.12744281178222733 8.5129040602496584 29 25 14 1.9514770842954248 4 2840 21 6580 28 10306
11485 2.3864303966401121 2.3436959548656624 6.4069567675716677 186 170 129 0.95303526037975195 5 476 6 841 10 526
9783 1.9061104344090445 -0.23089691440821933 8.812311026234406 66 57 40 0.6171716349041404 22 7422 21 6603 26 7878
11473 1.2263378584575109 0.048514588768142977 8.2340937971051513 45 43 30 1.6484053841997277 34 4019 6 753 33 4269 7 742
11179 1.747338560649202 1.3553728758283954 7.0817950043433546 130 117 108 1.16002238151626 22 4510 20 9488 25 3349 32 7734
9784 2.4025225382018265 -0.27602332400056517 8.8210683109557149 46 35 17 1.9560361696833286 1 2907 5 6360 21 6609 20 7137 6 8439 24 2497 10 11928
15285 -0.64756205432491309 1.2919877094286749 7.3219584354549436 49 45 33 1.1884597647779593 33 1209 30 1002 29 2259 7 1440
9786 -1.0530005452249673 0.2947129488393741 7.7855842644454434 55 51 42 0.7008477787886912 34 6313 21 6634 28 6424
9791 4.1276730826082249 -0.41911357808300903 9.1086780181018447 38 29 12 1.2315921378979751 1 2944 21 6679 2 8072
15577 -2.093697203419195 -1.9486400323593944 9.9751900420262274 79 82 87 1.5296626943280447 34 5765 33 3983 29 5786
11261 1.1631616801307121 1.591061953940174 6.955430053021197 89 87 83 1.5108891035591805 4 7799 34 7219 3 5015 1 5268 2 10003 5 3581 20 2089 21 1568 22 4654 6 9301 27 2972 33 7859 19 5790 10 7817 11 9552
9794 -0.04977749653233262 0.24793964928707413 8.0091783313803244 16 18 19 1.8210343500100521 2 3167 21 6721 1 4357 31 8583
10742 -0.74468100613195565 0.55919046105729964 7.6478188313595892 59 47 33 1.7472378180089525 21 3148 20 5153 28 3600 18 9708 32 6544
9799 0.93436920861635342 0.14683436818979789 8.2051087171205968 47 35 19 0.77513719748655641 22 7546 21 6750 25 9998
11259 1.3742650662917522 1.4447108544450979 7.0430449879033343 32 31 27 2.4815302077458288 34 4409 3 3261 1 9153 2 3647 20 2011 4 3369 21 1522 32 1763
9800 0.20519947767931931 0.26152672444295222 7.9672097174904506 73 71 59 0.67856922343990189 22 7528 32 6153
11165 2.0932869508708078 1.2376843597548184 7.1937071231671652 115 108 93 0.86752518801109835 22 4438 20 9318 25 2339 32 2976 18 5844 7 4591
9826 2.7750707205695799 1.3648190261407516 7.1109717753994772 44 38 24 1.7045848189805308 1 3474 21 7151 25 3425 28 3859 20 2008
10646 2.1691227799491219 1.9479457749369677 6.6153837499830557 126 116 108 0.69907306493119581 21 4181 20 4192 6 5011
9831 1.2231467942146275 1.6658221304517526 6.9043822686112355 55 47 36 1.3026177049870826 4 5010 21 7293 6 9398 28 5241
11163 2.2451550451084348 1.2223946065682354 7.2262188071642983 0 0 0 2.0766535104511243 2 9621 22 7788
9832 2.386346882093366 1.5259631423973941 6.933085820900339 31 21 12 1.5100108300975232 4 4906 5 6152 21 7336
9834 2.2619023119036461 1.5629647902678878 6.8328151335476655 33 22 18 0.24604036083226849 22 8204 21 7389
9839 1.522806606869173 1.7292593785180232 6.8283024372911854 42 32 22 1.6460580353042797 2 2152 21 7467 28 2759
9842 3.7556311857708193 1.4487062394022749 6.9970280599172234 57 55 39 1.4420724210251015 2 2221 22 8296 26 4898
11243 0.36307753850145502 2.036810835717441 6.9870335102515471 33 27 11 1.6640810773950381 4 9768 21 8295 20 10247 6 10143 28 2978 18 9224
9848 2.397888318219072 1.6946855744661695 6.7901141928217106 107 97 87 0.96570631915073724 5 8288 21 7597 6 9687
9850 1.2636232003388659 1.8858722290178707 6.8041014291027864 41 32 23 0.66462447064290464 22 7475 21 7622 20 10170
14830 1.1316602639555859 -2.1624555486074351 6.1980941055563177 114 85 44 0.19841973139046803 20 4616 29 3162
9855 4.0839832022825577 0.063056153269058973 8.574440993307844 78 71 45 0.52898570408591639 4 9242 21 7702 6 8388
9859 2.4579325884119805 1.7949906691629827 6.7003150932278084 57 49 36 2.2316359832123851 5 3629 21 7732 6 2230 28 1106
10519 -0.53475285063888855 1.2526404323559839 7.3052286686945953 26 18 5 1.9707506211178369 21 3476 20 3223 28 2599
11026 0.78047528589473858 0.59551526896103746 7.7247996775972112 39 28 11 0.1452854654820171 22 8953 20 8154
9869 2.4134317656411217 0.2948448251826718 8.1689114994847749 41 34 16 2.1877128160100323 5 6894 21 7847 20 7767
14623 0.0039556357052628853 -12.896336350232469 10.476905841105454 118 111 121 0.78366349658910606 28 1418 34 1812 27 3144 33 2229 26 1731 29 3216
9870 1.8549930189948769 1.9617695212854231 6.6695769106415792 48 37 31 1.2301830950960511 22 3058 20 2401 3 969
9875 2.1827727507426853 2.0448216555093817 6.6082107098352374 41 29 20 1.3647248307301203 5 8755 21 8032 6 9658
15130 -0.52601615302527516 -1.7013631458007206 8.9174010705914775 53 59 66 0.067376829301480284 34 240 32 415
9877 4.2325358313887076 0.059760722969889754 8.4806994064751997 28 19 2 2.4166320743909169 5 6442 21 8086 26 2821
10599 0.26193541986816338 1.6294446728277041 6.9866824675764629 73 63 53 0.74743026830453019 21 7040 20 3771
9878 0.46756700054951705 0.5783733793845206 7.6785101461151983 86 74 60 2.410737829841294 22 8860 21 8123 20 8089 28 6590
11112 2.2801768490920771 0.9292263425963232 7.5367118545149276 130 117 106 1.5332751917193876 4 6737 22 6154 20 8822 32 8321
9883 3.4586446751868229 0.90123676563957167 7.6480225859505557 86 78 65 0.87172293124084366 22 4275 21 8179 20 8877 5 7430 6 5819 25 3125 34 6811
11106 0.21664350024508103 0.99888218950460983 7.3924213466869615 48 40 27 0.55516915796045341 4 6874 28 5807
9885 3.7853873057826437 0.76512671922129216 7.8035788024954087 82 77 58 1.416245977313485 3 6713 4 4410 22 4172 21 8197 25 1061 23 2989
9886 1.1620794646317212 1.0670287321501799 7.3382525978649431 111 102 87 1.192247100664199 22 6084 21 8199 20 8967 3 6860 28 7269 32 7235
9905 3.1086836780620133 -10.700109769434825 17.24182403730239 9 16 17 0.8535449798557464 22 1979 20 5963
9909 4.1904821169139055 0.44124004796445548 8.1624548404782757 42 34 16 1.6478573925080764 1 4685 2 6077 22 5875 21 4752 4 10660 3 4279 5 6814 25 8685 24 3885 8 7217
10503 -0.46798571382810078 1.1787097196468035 7.3244667821514717 140 135 116 1.2228805985265983 34 6798 20 3149 28 1024 6 9243 33 4838 5 6106 32 7565 29 1603 30 2906 7 1854 10 2498 11 5967 12 5607
9910 3.323587192280403 0.30182094020620426 8.2895043311243271 40 31 18 1.6167627831277123 3 2904 2 3381 22 3735 1 4568 21 3275 4 4285 34 6508 5 4847 6 8808 28 10578 24 1514
11016 0.5073582492877492 0.57754710648142471 7.6959790026893247 85 78 62 1.0657001994869248 4 10902 20 8097 28 6591 32 6525
9915 3.2658499588440719 1.8794465920873995 6.5852072199504867 48 41 31 1.5303180908527481 3 1751 4 1590 22 1550 21 977 5 3103 6 10421
11010 2.4531751899360068 0.45151681985702741 8.0836698013999442 121 114 96 1.266337466160796 4 10689 20 8065 6 5596 32 6326 28 10759
9917 3.703322221685768 0.30525359345996161 8.2987034038865168 39 30 16 1.6048258421636816 3 2925 1 2040 21 2481 4 2938 5 4828 20 7892 22 3838 24 1543
9923 4.0619014322772546 1.0727254795628933 7.4945563288294936 28 26 19 2.2052088068289719 2 9936 21 5481 4 6949 3 7342 1 5153
14369 0.7045431198990133 -1.5677722058946939 7.5512562127770435 19 22 39 0.92628600600793987 27 446 29 454
9925 3.7371674583659811 -3.0069012509258171 11.737590972441028 76 73 60 1.5713406684352569 3 6058 1 4253 2 5217 22 5414 21 5898 4 2621 5 4418 6 3319 23 7810
9926 2.1696828018178462 1.6425480741484366 6.8462254290535238 21 19 15 3.0490123363264017 1 844 21 7471 34 7335 3 3395 22 4812
11300 5.6937707556666108 -5.8172158148424487 13.983034395802203 1 8 4 2.7328033641557354 5 163 20 243
11096 -0.32817622590495749 1.0004544913213014 7.3940467464998632 108 103 96 0.30161803584170421 34 6687 20 8719 32 7204
9931 2.918057514726454 -8.30389819667651 13.589440514127119 64 100 122 0.65100680044363579 2 698 20 2770
9933 0.5271309681522397 1.5325307958015131 7.04213351095785 53 44 29 2.1535472353470908 5 281 21 264 28 307 27 232 33 471 7 250 10 220 9 276
11299 3.233286714974716 -1.0027483903153844 9.672108280746615 51 41 29 1.0989796774823442 4 228 6 179 7 147
11090 1.2099132756551472 0.87796803617869124 7.4951603106703191 127 116 98 1.8724691117685577 22 5794 20 8651 25 2694 28 6991 26 2361 24 6980
14687 0.81304531854296058 -1.4254419411915773 7.2644016322912881 89 67 47 0.89597069323086009 27 4224 29 1397 30 382
9934 0.42587656601555246 -1.6019977056506671 5.7535507959369214 25 27 24 1.3036956470298262 21 316 33 515 32 456
15423 0.98658645425614777 -2.4451097786635034 6.035676251232438 73 52 31 2.2477850150082697 1 624 21 1246 4 1882 23 608 6 7065 9 4473
11176 -0.61743329202358965 1.4870343269563551 7.2804272304652757 68 64 55 1.7087591147925654 5 8429 20 9460 18 6506 29 2139 30 2705
9947 1.9204665048115819 -1.8934425376451889 8.1195523112560846 142 93 36 1.2296624900719888 4 2645 21 1227 23 2081
10297 -0.28785483645663468 0.81706853021177817 5.8065792908876155 47 38 29 1.9889891026247315 5 9181 20 1754
9949 0.30631335074738786 -3.2695381115075239 5.6533543772385482 145 115 91 2.5424029671819355 34 3572 21 1274
11315 -9.6432369165629641 -21.354626158504313 32.009963588013832 140 205 233 0.31449474353824902 21 479 20 856
11170 0.90148284371126708 1.3359868731841376 7.1366726715684452 66 55 27 0.22282079554082235 21 5293 20 9386
9950 1.0843097837569529 -11.134616938413652 16.79458567263104 91 94 83 3.5415952752544637 4 1218 21 1288
15216 0.026604117767277499 1.3873229778932494 7.1614585371072419 46 44 29 2.1335423258208626 4 605 6 476 33 738 18 493 19 305 10 532
9955 0.46920630674995778 -11.922722779952517 15.592487995797466 29 33 34 0.719477433709377 21 1333 20 848
9957 0.93905797054277662 1.5013630262446038 7.0426297057766334 53 43 31 0.92176606662619265 4 4878 21 1519 32 1801 18 6379
11128 0.083963418005893936 1.1504179280512135 7.2624441690301582 156 148 129 2.1204695033278571 21 4927 20 9008 28 5652
9963 0.71773839471306811 -12.908276274631504 15.595885246614566 34 38 39 0.67622771091852063 34 3541 21 1970
11122 -0.61460065102201933 1.1534715131040925 7.3489953165291517 150 143 127 0.96538197091998179 5 6056 20 8948 6 9264 18 5993 30 3998 10 7038 9 7139 11 6013
14719 2.7227100852934267 -12.31330093067737 9.7982602526625939 172 157 134 1.518085468090254 34 3397 27 4426 33 3622 26 2444
9966 0.24131204056568681 -12.306451479336937 16.019698374470277 54 55 50 2.1085030309647435 22 3380 21 1982 20 2647 4 3961
15226 -4.2874874992790524 -16.931372115187035 13.24996105074022 85 89 142 2.8757642406730906 34 549 33 798 32 653
9973 3.9614201426773468 -9.5291801142990309 18.68344231027335 19 32 38 2.1161810136918535 22 1820 21 2217
9974 -2.1904841363250629 -1.7186774842769472 9.7511074465241609 87 86 91 2.6035327913979112 34 5797 21 2273
11074 3.5222212373048762 0.66901445413412286 7.8923231943464094 106 99 83 0.5533268586200506 22 4039 20 8504 25 2929 24 7452
9986 3.8045392972213321 0.78131558396873635 7.9295557897106699 36 30 14 0.22003344575111611 22 6289 21 5046
9991 0.39478646541659712 2.0140068843039689 6.9611900193429852 43 33 20 1.830942078484173 5 8926 33 8392 20 4116 18 4871 19 14051
10939 -0.24713030754657889 0.28702525320668848 7.866128803972221 73 73 63 1.7357209077757305 21 6730 20 7554 28 6257
14979 2.2537248116372171 2.3380089521066365 6.4341301759824923 30 26 20 2.1721600555159335 6 2427 28 1315 27 651 4 1870 34 1312
10000 0.15752288538140197 -0.57485739790637636 8.9806044906123788 11 15 18 1.8103571595705921 28 11 26 5 29 11
10001 1.4760454884711978 -11.531740088007883 13.291652177959353 61 72 68 0.68368166433248878 4 15 34 34
10893 1.512191901692383 -0.2685120877036366 8.7389903935756621 36 28 17 1.7039280102542229 5 6463 20 7093 6 8640 10 4990 9 5216
10002 0.52423747873307081 -2.6939725137980259 5.9131347489753265 208 174 110 1.6035271497259544 28 21 33 35 19 12 11 14
10005 1.7527700321834461 -1.2036576711351044 9.4274886808371203 9 10 5 1.0881295141417162 20 43 32 42 18 52 21 25
10374 0.66617576508890664 2.0329078698801455 6.9067454360003753 42 36 22 0.093814428289907853 21 1714 20 2374
10007 2.0050293191251622 -2.696167200844521 5.8722524701585437 150 107 64 2.1801456175223031 5 50 29 62 30 62 8 76
10891 2.8156533866584068 -0.43196412248941679 9.0223455631930864 43 35 22 1.7416099228259891 34 6210 20 7038 6 8258
14997 -3.0626890004623442 -16.790491609235062 13.528364742063381 74 28 30 2.2364271449723838 34 5299 28 1932 27 5182 33 3623 26 1745 32 2021
10010 0.77613987872742318 -2.3327855460811988 6.0032775737293997 189 153 95 1.0770562290606756 18 85 29 129 4 45 20 58
14478 1.7474811783919257 1.9740848716567625 6.6461423773211372 44 41 36 0.36141124107263456 3 1726 27 1582
10016 -6.7767128072606511 -16.135573243553292 18.801907486735679 250 255 254 1.6924919148580675 21 74 20 113
10845 4.9131997624712476 -3.5920774475745798 12.479623928294972 0 0 0 1.7901528487658582 1 7893 34 1561
10018 -5.9356446046758924 -20.904031103274953 27.097034385432416 134 201 243 0.44586531248333555 20 120 18 113 21 120
10019 0.59759032870957651 -12.587980237676934 16.739225491766771 37 42 45 0.75470367446366193 21 77 20 122
11713 4.6306825234402691 -24.563666328096676 45.425821663367273 116 135 152 1.0058997171474249 34 3673 6 2701
10326 0.84086219092315084 1.4890514136963791 7.0542299770416586 46 39 21 0.74763981646582933 21 1116 20 2017 28 2539 18 4401
10843 -1.5205185924521887 -2.0684822882641067 8.1729577138696747 83 82 79 2.4542326999617021 21 5847 20 6237
10024 -0.48551829376114269 -1.0421989088941195 9.0610472402112485 170 180 192 1.9725447001972294 21 142 34 128 20 156
10031 1.8888389132309709 -10.366855577128039 12.512727533918307 34 38 37 1.3011478746192602 4 131 21 108 20 185
10032 -5.6097897261088043 -21.352371201932197 24.9868308550042 254 255 255 0.32968000648229123 4 109 20 189
15826 1.1630958859715379 1.8095805928191249 6.8285489828209629 48 47 35 0.94029781360299569 4 5139 18 2060
10716 3.2881913426325751 -0.83223485062696534 9.5008522744383797 30 22 3 1.3019022348799107 2 2340 21 8399 20 4895
10923 3.4928987576651478 -0.087801371100822936 8.7175277316058928 129 122 96 1.6162434867826398 22 7750 20 7394 6 8380 24 4889
10040 1.4762811422471727 1.327390980889724 7.1047617878370044 66 53 37 2.061316878492359 2 212 20 219 25 192 29 158 32 198 7 196 10 151 9 119 11 141 8 119 31 157
10047 1.4996100009113185 -2.2746626124706291 6.3699923398535878 138 90 24 0.72171062523868046 34 309 20 241
11005 -0.32320503625878244 0.59807016518724954 7.617798873473089 145 137 124 1.6592342790903944 21 6999 20 8051 28 6420 32 6586 5 7683
10050 3.3061258318996218 0.49359206462006811 8.0876156998087865 48 37 19 3.3785102034362247 22 200 20 252 23 191
10486 0.65879306454649278 -0.044643606401915864 8.3689609037998949 19 21 16 2.0790245097604525 4 2856 20 3060 32 4241
10055 -8.1429762979956806 -19.076939918328126 24.164992417042821 98 133 165 2.4735358397811309 3 111 20 286
11003 -0.80892047870006012 0.62278558798386352 7.6027931005123159 122 121 104 0.48118203978636709 21 6960 20 8047 28 6725
10056 2.2712203785156642 -0.20290073402698294 8.8306881153060708 101 89 72 2.0080851200817995 5 226 20 288 25 205
10080 0.82809273963389152 1.3315270274956472 7.1032337107670482 62 54 43 0.79864141330900529 4 398 21 399 32 451
10909 2.3484870418637631 1.2182281857508184 7.2232915130204951 48 34 21 2.1616912328450937 21 3680 20 7195 6 4480 28 5698 18 5791
10082 0.66232305778391243 0.63456081322921709 7.6234624892518879 66 58 37 2.4348108856976896 4 973 20 426 28 571 27 569
10085 -0.80449196283650493 -0.10856195752989371 8.127259287334315 125 118 108 1.0394960265864233 21 427 20 443 28 371
10087 2.8386503267443546 -1.3837953013951989 10.033697707504807 54 43 25 1.4690585284065478 21 428 34 554 20 454 32 813 29 2861
10907 1.4441765197770506 3.9711374905136125 39.534824091976276 119 111 92 1.1093394454537793 34 7826 20 7187
10088 -1.4966975981467179 -2.1798521041345178 10.326725642870114 75 73 80 1.7567416398519486 20 462 33 558 18 278 19 176
10095 -2.1328922782066293 -1.6960110722145565 9.766781321875424 52 52 54 0.48055671088499846 21 593 32 812
15075 5.4141295655214297 -6.5584053088879575 11.831816866956862 5 21 20 1.7480619521822449 4 1275 27 9850
10096 3.2933471350415444 -2.358198179988904 11.142066310181582 41 34 18 1.873962527168888 1 432 34 795 25 433 33 622 28 972 26 532 23 483 24 355
10989 0.38794959355698672 -1.0433115212985391 7.8968389255091918 108 115 104 1.9542242395622047 2 7263 20 7919 29 5822 18 3214
10470 0.7917215716990097 -1.1237963104297113 8.2712317225988894 15 42 53 1.8893559858804774 5 5989 22 2343 20 2989 4 6249 28 3479 33 5506 26 2102 18 3065
10987 0.39290489568496834 0.49454416847588961 7.7537217140151506 43 37 20 1.4829821215636478 20 7907 6 6178 28 6487
14864 3.0953939587308357 -1.0159305411238801 9.6562555900669551 36 29 14 1.402772049581803 21 6284 27 5632 32 5397
10263 0.38272813045931248 -11.879050243302601 16.070570866992583 91 92 86 0.54705135040347797 34 1975 20 1512
10118 0.73730552742083388 1.4407017212353443 7.0912991527376468 65 59 39 1.550346765962703 5 504 20 627 28 594 27 591 32 725 33 927
10776 2.5151282708856413 0.79295155467036993 7.7125809192415291 49 42 23 0.92508250914203882 5 5093 6 5938 32 3157
10770 -0.51896834418152682 0.92387551398354273 7.4033480324798058 42 34 21 1.2007845779434252 34 6643 20 5387 18 4046
14367 2.9951531959410462 -0.51760171471356053 9.1216464014147611 37 29 17 1.6088307851919665 5 320 34 526 6 358 27 433 29 309 7 553 10 376
10126 3.1475083339468344 -1.9533557669470474 10.621484731928298 35 27 8 0.31760606805116515 1 441 20 676
10131 3.1846280662088859 0.3056138157058369 8.3148558579137788 47 40 22 2.4755653768999557 5 2760 20 705 18 2899 7 6907
14874 3.115532282085657 0.74430566437318368 7.8105301262473379 84 79 66 1.0801936781338544 20 8582 27 6356 26 3953
10133 0.84360478029380082 0.79751505203281547 7.5321589715440949 57 46 28 0.32200266857874288 5 718 20 728 18 653
10343 0.84655342651262977 1.6944002638988704 6.9489060743147002 88 78 66 1.4982391093794316 21 1587 20 2141 28 2429
10134 2.2507098056047861 0.98182434462385815 7.504520367055143 46 35 19 1.8550523535769987 4 407 20 742 32 1573
10856 2.7802031013954407 -2.6454924424113129 11.414005850947554 39 30 15 1.2360250688635779 20 6416 27 5483 26 4488
10139 0.99925786424373075 0.61032133745699402 7.7435838304108291 56 44 28 1.7458417199588461 4 1742 5 1467 20 809
10140 3.6838036946343928 -11.501501997249049 11.735673257973113 38 40 29 1.1529072654955861 21 847 20 826
10850 4.4231934219993176 -3.3085337680947506 12.122307248069431 54 51 36 2.0429532309944882 2 6667 20 6306 25 3833
14896 1.7375491237308596 -1.1791328620302162 8.5746902298927345 35 31 31 0.65500396268881478 3 8454 27 7083
10147 0.18011423375811214 -9.8671171603560719 13.438835154578936 11 38 59 0.9875499820186564 2 1171 1 1516 3 1226 23 998
10802 4.0832003692707444 -14.28530113369191 16.527126734590176 24 25 19 1.8539598849051702 21 2692 20 5901
10760 3.5538778475050838 0.59014634317523862 7.9901353970307207 42 34 15 2.4332538966520936 4 3046 20 5288 33 7006
10754 -0.30098782484590658 0.72917540912016743 7.9135332270519596 50 40 28 0.18067398291279621 5 1853 20 5240
10174 1.3021570658875565 -11.891614129173618 13.604746127563814 90 95 98 0.18533210757157098 21 877 20 1022
14928 1.3650880139100414 2.2878599740805838 6.6853706024749791 24 25 20 1.4761443944702226 28 5009 27 9222 29 9417
14625 -2.2591872951769885 -17.466969711213835 13.475312180673843 58 62 63 1.3575451734725685 28 3346 27 3151 26 2482
10327 1.5218943780079501 1.4597905554691613 7.0134336578715484 56 46 34 2.2429276299686336 21 3774 20 2025 25 2218 2 4212 28 3961
10182 1.465200468278381 1.6338309034987168 6.8861437644551868 61 53 34 1.1353134301945804 5 1275 6 1332 28 1067 18 1334 30 5849 7 1346
10840 4.6379151414124991 -3.8655282877575896 12.49778843100575 71 64 48 0.82379282924004249 2 6584 20 6210 23 7704
10187 0.36630530218835855 1.878794123479421 6.9825978778871329 24 22 2 0.54533187027824592 4 1556 33 1918
10537 2.5690865572619774 1.1740137760262932 7.2803052556707106 46 36 24 2.1398497595892785 5 7916 20 3337 10 5410
10189 2.1712147615885797 1.7972681441718079 6.7080954346992234 55 46 29 0.61041941200057959 21 918 28 1111
11555 0.45567490973661806 1.4218055479433238 7.1095425940376789 51 48 39 1.6995431384225708 5 744 6 1336 32 966 19 992 11 1645 10 1053
10834 2.8921671181094282 -3.5208060068571161 10.145839295891351 0 0 0 1.9788449069987692 1 2598 3 720
10195 0.60637883735550568 2.0939978289321055 6.9205083526142834 30 22 11 0.064158817608980526 3 1701 28 858
14938 1.9978964123077032 -3.2996993286543606 5.5378572593853042 82 81 77 1.2606968911408545 3 2220 27 9716
10197 2.8891138217388002 -1.7733926582758117 10.558563347368924 38 30 17 0.88270536911104991 3 6199 20 1163
10203 -2.0314066109096283 -1.7975518773848942 9.8535484334281414 63 61 62 1.07648297875953 34 2241 20 1209 33 3993
10553 1.7575973141750763 1.2685546305808972 7.1646064111463987 137 129 118 1.1150432730227069 22 2635 20 3429 32 7562
10205 -0.97275428361677541 0.13668569492293539 7.9610826351185322 52 48 36 2.1430663825987368 21 2372 20 1217
11571 0.89304879632157697 2.1879438005309777 6.843321881656439 35 31 28 1.0167816337991817 5 800 6 1481 18 1100
10914 3.3732666077798492 -0.23222282286604223 8.8854685918949183 36 28 5 1.6521467339946985 21 3089 20 7231 32 5759 18 7517 4 6474
10206 0.75115708478729271 -2.648789955632568 5.8236274776085795 141 87 29 1.0885481011538756 20 1227 30 849 31 686
14960 5.7332576438872458 -4.6299293857637975 13.46002572823147 33 40 33 1.4335878419851877 22 9041 27 9962 29 2898
10211 0.4682974609843838 0.83789304253967611 7.5469472159055435 58 48 25 1.2623218850417557 4 4470 6 4505 10 2725
10359 0.54166402757208609 1.9004625704246136 6.9670044429392153 32 26 14 1.5998895972256884 21 1179 6 1430 33 951 30 2526 28 1180
10872 3.4360394713626596 -1.3040744356434451 10.088380528733939 42 33 16 2.0283826940288017 3 10631 18 7165
10220 0.23334765624578901 1.2177384479279401 7.1883338541051556 46 37 20 0.62772486088971791 34 6854 20 1314
10866 0.64678526069284725 -1.1020756724301191 8.1089639962195772 99 108 103 1.6668241376118942 4 8525 22 5467 20 6609 27 2229 32 4020 24 6622 30 3704
10221 0.74856404610793947 1.3673176315739661 6.9411655314550584 53 46 30 2.5461570228303705 21 1882 20 1336
10224 0.18111150901453898 1.5132240532023689 7.1100988745417171 48 38 26 1.751977317925326 20 1356 28 767 4 1461 18 679 6 825 12 578
10228 1.480980892405527 1.5324551494248406 6.9873214460721744 55 42 33 1.1205548264326941 20 1373 25 2172 22 2783
14970 -0.53448008564194971 -1.7334903387331921 9.0172121230031497 52 64 71 0.19308461840721303 28 4428 27 10050
10229 0.38844228052434621 1.6331988292659663 7.0567248858729048 50 41 26 0.98867227968904847 21 1129 20 1379 28 1094
10311 -0.44315717614715305 1.2962517816794086 7.2829046058221829 61 55 43 1.3649250796318875 34 6888 20 1874 33 4901 32 1719 30 5867 18 6202
10824 5.6933631052354894 -6.2296893711592123 14.615998021869785 0 8 0 0.79705235311263256 5 2363 28 4683
10235 4.3216194193857946 -4.1831500988227956 12.891561940553835 35 28 9 0.89312838277648243 3 2082 20 1408 25 4585
10818 1.5529388862092772 -2.6554492785200652 6.0031846782147982 141 91 47 0.80360341117999567 4 2569 34 5503 20 6010
10240 0.49346478477798561 -2.7206121261796317 5.8242640121897198 217 177 105 1.0673174761665938 21 754 20 1438 33 3735 19 463 18 3262
12210 2.9339516023167191 -0.12664623310294323 8.7482096506369125 39 32 21 1.3362510634314573 5 6416 6 8459 9 5021
10243 6.0081174426419448 -7.6189100313542646 14.349231248977341 103 117 116 0.091425891318230493 3 694 27 1972
10244 0.47890761784822045 1.6992246202432948 7.0123702537863366 54 46 33 1.9114617775724365 3 3318 20 1447 6 2348 5 3714 28 3147 27 1481 18 2027 10 2427 9 7214 11 3359
11188 2.3611400462284604 1.1348470271576445 7.3175348603254209 32 26 12 0.64274101537390704 4 7092 20 9537 6 6362
11192 0.71935538552605183 1.4859793474707741 7.0753354036838152 48 37 18 1.4376036078347501 3 5915 20 9580 32 3324
10249 1.8011917762304257 -8.8876909152055461 13.526657812129125 148 207 246 1.4941667083988273 1 1586 2 1230 3 679 6 1136 23 1918 5 1116
12218 4.0462007133509532 0.25809153059293921 8.328211577082909 116 108 95 0.88664946876944628 5 6653 6 8566 7 6716 10 12025 9 4984
10252 0.79397509669197153 -11.84243384373873 17.296766435889769 86 89 82 2.54763280876967 21 742 20 1486 18 2475 33 2368
11196 2.7862187126033429 1.4143501106990495 7.067072328469 43 31 15 0.25396035790281402 1 5936 20 9638
10254 0.34136509739384113 -11.593248509281038 16.790369680664835 81 83 80 1.8569527023953212 4 1197 20 1491
11136 2.1816139365864124 1.0733650305189737 7.3849176850723444 91 79 63 0.87194651683729385 22 6348 20 9047 28 7217
10257 0.28844699584861189 -9.4590413318068087 13.333055888552749 0 0 0 1.049016688278722 2 662 34 1981 1 1530
11655 1.314479710635807 1.7058452897767753 6.8912468416031256 45 40 35 1.7946719774392357 5 8458 6 2287 10 1459 9 1419
10260 0.27853475057406035 -9.582957154174899 13.324422658938943 58 63 67 1.3506388800156202 2 656 34 1507 3 651 1 762 33 2343
11140 0.054728966512968491 1.1957289527473327 7.2597448968847758 103 96 80 1.5383207274136872 34 6834 20 9077 28 5582
11144 1.4739431620255503 1.1362754525590479 7.2824019280151315 113 104 89 0.66810794497045867 22 6262 20 9109 28 7343 32 7357
10266 0.40963819527273143 -12.078335472513567 16.114374300569914 85 89 86 0.80504369491008065 21 1327 34 1509 20 1518
11148 0.043389252578860865 1.2372281444202691 7.2421451680503006 56 48 29 1.1213905727468529 4 7264 20 9147 28 5531
10269 0.99614477588543404 -12.620933410048519 16.271023454229312 57 62 58 0.58537603701992369 34 3129 20 1526
11657 0.50865783881991433 1.6524980614212144 7.021211298728562 38 36 24 1.9718123925157645 5 3679 18 4558 30 3442 6 2327 10 7060
10270 -4.301319567187412 -8.783318712534804 11.620112927450842 124 173 216 0.20745596670115363 2 315 20 1529
14222 0.47444060318783454 2.0373656561722426 6.9301167164791151 36 33 25 3.0907367802951713 21 4030 28 846
10271 0.27778578486370809 -10.177557697291968 13.023943179665938 84 95 101 1.7649199874370338 3 723 5 1067 6 1075 1 738 2 623
10272 1.6957311642364641 -9.7690992685899865 12.083411424813789 92 94 89 0.4140883723220517 34 1527 32 2129
14019 -0.32033150787181647 0.61364090903488722 7.606475108709799 41 38 33 1.6966496678488323 21 7020 28 6673 33 6815
11088 0.21616790067827629 0.9212085126716234 7.4135796549657433 115 106 91 0.7917690655951054 5 7960 20 8633 6 6703 32 7072 10 8844
11092 3.0320873999152651 0.81000003815032706 7.7330126342515753 84 74 62 0.75148324977475645 5 7382 22 3464 20 8683
10277 1.2983378899523734 -10.347165519610318 12.589116504009072 33 46 39 1.2505367382798158 34 1929 20 1550
10282 1.2020348274258086 -13.136843423883453 14.634078178287606 85 95 94 0.29372197583010973 21 866 20 1573
10283 0.25648710799953522 1.4198106361282505 7.1446424611155459 54 42 29 0.54381721336604527 20 1591 6 2275 32 967 12 2934 11 3256
13013 4.2460987247907793 0.43164177448699237 8.1877360206740786 101 93 78 0.30148199570444317 22 5870 25 5915 24 8092
11983 0.31599241509484499 2.0229793688635067 7.0014690089730713 29 17 17 0.37100045232254086 34 4654 6 5354
11100 -0.64210696496775088 1.0293392493965032 7.4122348642674343 118 109 92 0.56894102090880383 34 6693 20 8738 33 3009
11976 0.10391247424796715 1.9212190696047213 7.0433817200733548 77 74 67 0.86681934623739509 5 8846 20 4020 6 5319 19 3202 9 3975
11609 -0.35966977544317957 -0.40065793023018687 8.5005212429017067 6 11 17 1.4687955903803733 5 2726 6 1876 12 7124 10 1270 16 4858
13731 1.1978950595378004 2.301694365879436 6.7278390772520789 39 38 34 1.7182666647142515 6 10274 28 3082 18 9591 30 5432
10288 0.11410266784846063 0.21689445208166688 7.9727929466681324 14 16 11 1.8797424455831446 5 2815 20 1623 6 1931 28 4461 18 3559 10 1585 7 2168 9 1623 17 3221 12 5092 8 2332
13010 4.2568065410329874 0.49340160789712667 8.1112127099607374 33 27 11 1.3154256401177473 1 3208 25 5852 24 3957
11168 0.27430682433847592 1.34938749198389 7.1699306551699218 126 117 102 1.1873108795941225 21 5202 20 9346 28 3940 32 8373 18 6217 33 7712 10 6783 19 12311 11 9812 7 5249 12 8439 17 6088
10289 1.0038217694647742 0.2742898482486949 8.1451620976451977 31 21 9 0.85823226114670659 20 1639 25 6545
10293 3.1085058107893877 0.2794346629488173 8.3151271104013968 59 46 31 1.1090407123282238 21 2463 20 1656 28 3567
11991 0.49075410043942325 2.1505520754735494 6.9620461907572455 22 19 14 1.7960759134124604 21 1749 28 795 6 1489
11172 0.80890488056109711 1.3501399153015785 7.0978576043416961 53 42 24 0.066851850530900092 22 6421 20 9413
10294 2.6001333224850027 0.34621984200402334 8.1954270167007017 44 36 17 0.98733462679920903 3 2896 20 1665 24 1472
10298 0.79479888766863804 0.84351017713990606 7.4860409725687242 55 44 25 1.6405297148316031 20 1763 28 3660 6 2038 18 1671 32 2697
12202 1.4269466317159036 -0.69732145922929345 8.9609132136734644 9 6 1 1.3745553963460992 5 6166 6 8294
10299 0.24358502862398493 0.94404187413429796 7.3962016694916501 55 46 29 1.6293260315619611 4 1639 20 1777 28 3708 32 1579
10300 -0.25277652212739338 1.0230650830122641 7.3287836660730354 56 47 32 0.56626920562609917 34 6703 32 2859 33 7296
10301 2.346032354246812 1.0015520261467723 7.5139577311134111 40 39 19 0.30532744614842655 21 3543 20 1825
11999 2.9129174589801106 1.9604356339805398 6.5735566653678763 52 45 37 0.94694232791395105 20 4240 6 5532 8 3144
11180 0.44910209345596452 1.4313813033743199 7.1112597007641671 45 36 19 0.46671489285834911 3 7408 21 3647 20 9491
11992 0.22289987386023036 2.0920932035235857 7.0169624245609752 29 25 23 1.2684192046110823 5 9009 6 5421 28 2137 21 7645
11689 0.43955665190067483 0.044182411867690001 8.2071413330437686 21 23 18 1.2197371363523934 20 5002 6 2545
14254 1.1853398064403415 -2.3686695764092542 6.1167549133677204 45 24 6 1.2672407543420654 4 8153 28 4325
